1.2752047777175903e+00 -7.9548522830009460e-02 -4.4352066516876221e-01
-1.3831354677677155e-02 2.6217424869537354e-01 3.8791406154632568e-01
-5.5729782581329346e-01 1.9308033585548401e-01 -1.4573827385902405e-01
-1.8991451263427734e+00 5.0998502969741821e-01 1.4554277062416077e-01
-3.3427080512046814e-01 1.7454290390014648e-01 -3.4138974547386169e-01
-1.6390638351440430e+00 5.6610012054443359e-01 1.2222677469253540e-03
1.7539696395397186e-01 3.5923051834106445e-01 2.6721832156181335e-01
-1.5468391180038452e+00 8.6439341306686401e-02 -5.4759907722473145e-01
-9.6444129943847656e-02 3.8084211945533752e-01 -2.5288358330726624e-01
-1.8021500110626221e+00 4.1748654842376709e-01 -3.6877116560935974e-01
1.5099432468414307e+00 -2.5902783870697021e-01 -4.8708552122116089e-01
-2.1291460990905762e+00 2.0064246654510498e-01 -3.3284172415733337e-01
-1.8035159111022949e+00 -5.2096271514892578e-01 1.9899266958236694e-01
1.8987262248992920e+00 -4.1582327336072922e-02 -5.3351187705993652e-01
-2.1634221076965332e+00 -1.0256643593311310e-01 3.3020371198654175e-01
-1.4673233032226562e+00 -1.2925332784652710e-01 -5.1935583353042603e-01
2.0323691889643669e-02 -4.0770789980888367e-01 -2.1070803701877594e-01
-1.4460871219635010e+00 5.1261281967163086e-01 1.0947415232658386e-01
-2.2246017456054688e+00 -1.1981214582920074e-01 -2.2895751893520355e-01
-1.6841268539428711e+00 3.5887464880943298e-02 -5.6884086132049561e-01
-1.3157087564468384e+00 2.6722571253776550e-01 -3.8525405526161194e-01
2.5981557369232178e-01 -3.0193409323692322e-01 2.8888419270515442e-01
1.1611663103103638e+00 -7.6497174799442291e-02 -3.6275911331176758e-01
9.4379556179046631e-01 8.9549288153648376e-02 -1.6044461727142334e-01
-1.5199384689331055e+00 -5.3559160232543945e-01 -1.2391814589500427e-01
-1.0899010896682739e+00 2.7595877647399902e-01 1.2208414822816849e-01
2.1099131107330322e+00 -4.0097349882125854e-01 1.9648959860205650e-02
1.8687658309936523e+00 -5.3598177433013916e-01 8.3371557295322418e-02
-1.9769479036331177e+00 -7.0196807384490967e-02 4.9307975172996521e-01
1.9562313556671143e+00 -4.9856960773468018e-01 -9.4710350036621094e-02
-2.0230948925018311e+00 -2.7622398734092712e-01 3.8244029879570007e-01
-1.8462432622909546e+00 -1.7013679444789886e-01 -5.2392923831939697e-01
-1.8672096729278564e+00 3.3071249723434448e-01 -4.3110632896423340e-01
1.7672374248504639e+00 5.4102885723114014e-01 -1.5770626068115234e-01
1.8790863752365112e+00 4.9877524375915527e-01 -2.0152802765369415e-01
-1.7724865674972534e+00 -5.1560282707214355e-01 -2.3262988030910492e-01
4.1169130802154541e-01 2.7603420615196228e-01 -1.9691206514835358e-01
1.8308965861797333e-01 2.9017278552055359e-01 -3.2707017660140991e-01
-4.4364383816719055e-01 2.8007972240447998e-01 -1.5715597569942474e-01
1.8119250237941742e-01 -2.3423241078853607e-01 -3.6346361041069031e-01
-2.2003300487995148e-01 2.9650643467903137e-01 -3.1063118577003479e-01
2.2686603069305420e+00 -4.8236262053251266e-02 1.1668077111244202e-01
4.1165262460708618e-01 -2.7158904075622559e-01 -1.9986653327941895e-01
1.9346287250518799e+00 5.1327085494995117e-01 6.7058265209197998e-02
-1.5526269674301147e+00 4.1534027457237244e-01 -3.7004685401916504e-01
-1.1968148946762085e+00 3.6175966262817383e-01 -1.4642047882080078e-01
4.1040354967117310e-01 -3.3621624112129211e-01 4.8006419092416763e-04
1.7105181217193604e+00 5.6478887796401978e-01 5.1879316568374634e-02
-3.9940908551216125e-01 -1.8001671135425568e-01 3.0470165610313416e-01
2.0170812606811523e+00 -3.6083948612213135e-01 3.0672764778137207e-01
2.1707024574279785e+00 -2.1763859689235687e-01 -2.5632524490356445e-01
-1.7359315156936646e+00 2.7331560850143433e-01 -4.9536231160163879e-01
1.8653719425201416e+00 1.6426892578601837e-01 5.1755774021148682e-01
1.4169760048389435e-01 2.6891741156578064e-01 3.6732161045074463e-01
4.1539037227630615e-01 2.1581369638442993e-01 2.6694142818450928e-01
1.4129834175109863e+00 -1.7002254724502563e-01 -4.9151915311813354e-01
-1.1288943290710449e+00 7.0601373910903931e-02 3.2792949676513672e-01
2.2259006500244141e+00 8.7442964315414429e-02 -2.3002058267593384e-01
1.8272421360015869e+00 4.4218233227729797e-01 -3.2796633243560791e-01
-1.8993463516235352e+00 -2.8457772731781006e-01 -4.5316094160079956e-01
2.0983734130859375e+00 3.4101894497871399e-01 -2.3264130949974060e-01
-1.9227679967880249e+00 -2.2222407162189484e-01 4.7347319126129150e-01
1.7339950799942017e+00 3.7582239508628845e-01 -4.2603519558906555e-01
1.4672924578189850e-01 -2.3928594589233398e-01 3.8213413953781128e-01
-2.1355078220367432e+00 -1.6191560029983521e-01 -3.4713062644004822e-01
1.9233694076538086e+00 2.7121144533157349e-01 4.4519692659378052e-01
1.6113822460174561e+00 2.9387155175209045e-01 4.8088887333869934e-01
2.8562280535697937e-01 2.5334644317626953e-01 3.2306951284408569e-01
1.0708074569702148e+00 1.4120505750179291e-01 2.5238472223281860e-01
-1.3494626283645630e+00 2.2483305633068085e-01 4.2668420076370239e-01
1.5512887239456177e+00 4.7996225953102112e-01 2.7997326850891113e-01
1.2447818517684937e+00 -4.0030986070632935e-01 -1.5635779500007629e-01
9.3622779846191406e-01 -2.6812933385372162e-02 -1.7445044219493866e-01
7.0089769363403320e-01 1.4565671980381012e-01 3.2334435731172562e-02
1.6919879913330078e+00 4.7035732865333557e-01 3.1701081991195679e-01
-5.3641861677169800e-01 5.6208997964859009e-02 2.5533580780029297e-01
1.0668425559997559e+00 -2.2861810028553009e-01 -1.7896838486194611e-01
1.2352268695831299e+00 1.2630128860473633e-01 4.0237042307853699e-01
-1.6132279634475708e+00 -5.6697618961334229e-01 -1.5771239995956421e-03
3.0522426962852478e-01 -2.6267048716545105e-01 -2.8939804434776306e-01
4.2730498313903809e-01 -2.1847987174987793e-01 2.5313496589660645e-01
1.7547813653945923e+00 -5.4049766063690186e-01 1.6353175044059753e-01
1.5040035247802734e+00 -4.9922105669975281e-01 2.2160606086254120e-01
-2.0908000469207764e+00 -3.5339367389678955e-01 2.3262925446033478e-01
1.4305533468723297e-01 -4.1851684451103210e-01 -1.4511792361736298e-01
-1.1963828653097153e-01 4.3659463524818420e-01 -1.2468662112951279e-01
-5.9163421392440796e-01 2.1616436541080475e-01 -2.3117050528526306e-02
-1.5978250503540039e+00 5.4902416467666626e-01 -1.1954694241285324e-01
-1.2494581937789917e+00 -4.1339394450187683e-01 -1.0693408548831940e-01
-1.8413888216018677e+00 4.8988917469978333e-01 -2.5345736742019653e-01
-5.9102308750152588e-01 7.5293771922588348e-02 -2.0211707055568695e-01
-1.9162857532501221e+00 -3.7124261260032654e-01 -3.7566754221916199e-01
1.1325221061706543e+00 3.2242247462272644e-01 -1.2064787000417709e-01
-9.8974895477294922e-01 9.5498874783515930e-02 -1.9404774904251099e-01
1.8443629741668701e+00 -2.0818164944648743e-01 5.0685274600982666e-01
-2.8026914596557617e-01 -1.9531950354576111e-01 3.6377409100532532e-01
1.6024031639099121e+00 -1.3317315280437469e-01 5.4748100042343140e-01
-1.4769327640533447e+00 2.6283723115921021e-01 4.6469044685363770e-01
-1.5408524274826050e+00 1.6584746539592743e-01 5.2521950006484985e-01
-1.6597748994827271e+00 7.8077651560306549e-02 5.6019681692123413e-01
-1.3269218206405640e+00 4.4924923777580261e-01 -1.4936186373233795e-01
-1.8404924869537354e+00 -1.3243396580219269e-01 5.3273016214370728e-01
2.0082981586456299e+00 1.4603440463542938e-01 4.5598885416984558e-01
9.3160015344619751e-01 -4.6871736645698547e-02 1.6924038529396057e-01
-1.4234551787376404e-01 3.0175083875656128e-01 3.4406745433807373e-01
-8.6606514453887939e-01 -4.4145379215478897e-02 -1.2890246510505676e-01
1.1435984373092651e+00 -1.2515433132648468e-01 3.3143642544746399e-01
1.3561019897460938e+00 2.0026974380016327e-01 4.4898721575737000e-01
-1.7479267120361328e+00 -3.6448690295219421e-01 -4.3457856774330139e-01
-1.9221937656402588e+00 3.1075766682624817e-01 4.1861033439636230e-01
-1.1645314693450928e+00 -3.6711516976356506e-01 -2.2711012512445450e-02
1.4232136011123657e+00 2.5993174314498901e-01 -4.5362976193428040e-01
-1.9256150722503662e+00 1.7383407056331635e-01 4.9017030000686646e-01
2.1709558963775635e+00 2.3060387372970581e-01 2.3964548110961914e-01
-2.0923616886138916e+00 3.2095316052436829e-01 -2.7519941329956055e-01
3.1977817416191101e-01 -8.6783701553940773e-03 3.9668014645576477e-01
-1.3258472084999084e-01 -2.0292320847511292e-01 4.0824326872825623e-01
-4.8488211631774902e-01 -6.9902889430522919e-02 2.9048034548759460e-01
-1.4350301027297974e+00 2.5036757811903954e-02 -5.2335298061370850e-01
-2.1287710666656494e+00 3.6172041296958923e-01 -1.4090436697006226e-01
1.6578483581542969e+00 -4.5701697468757629e-02 -5.7063966989517212e-01
-1.6993416845798492e-01 -3.0567616224288940e-01 3.2329955697059631e-01
1.0351289510726929e+00 2.5883075594902039e-01 -1.9620452076196671e-02
6.4034920930862427e-01 1.6992726922035217e-01 -6.0643576085567474e-02
1.4667724370956421e+00 5.2160137891769409e-01 -1.2770701944828033e-01
-1.3365718126296997e+00 -1.6688038408756256e-01 -4.5019328594207764e-01
-4.2869246006011963e-01 -1.1886256933212280e-01 -3.0487295985221863e-01
-6.4759534597396851e-01 -1.6623428463935852e-01 -4.8473738133907318e-02
-2.2673609256744385e+00 9.5406174659729004e-03 -1.5237800776958466e-01
-1.2985757589340210e+00 3.7386119365692139e-01 -2.6503670215606689e-01
-2.3698487877845764e-01 -3.4678521752357483e-01 -2.3630230128765106e-01
1.8671997785568237e+00 -2.0210713148117065e-01 -5.0721400976181030e-01
2.0693516731262207e+00 4.3829619884490967e-01 4.1482225060462952e-04
-2.1297605037689209e+00 -3.5651427507400513e-01 -1.5328684449195862e-01
-1.5331684350967407e+00 -5.4004710912704468e-01 1.0757724195718765e-01
-1.6955649852752686e+00 4.5737871527671814e-01 3.3672189712524414e-01
4.4890633225440979e-01 -2.9363718628883362e-01 1.1732342094182968e-01
1.5129886865615845e+00 5.5985026061534882e-02 -5.4903364181518555e-01
1.4050625562667847e+00 1.2864094972610474e-01 -4.9976167082786560e-01
4.9871855974197388e-01 -2.6218053698539734e-01 -9.0565107762813568e-02
-1.9109890460968018e+00 5.2679502964019775e-01 -1.0913219302892685e-03
1.3716951608657837e+00 4.6135091781616211e-01 -1.8789654970169067e-01
1.6085237264633179e+00 5.2395284175872803e-01 -2.1627470850944519e-01
-1.7526462078094482e+00 -3.5038460046052933e-02 5.6235128641128540e-01
1.5515927076339722e+00 -5.2843242883682251e-01 -1.8321874737739563e-01
2.7712115645408630e-01 4.1072037816047668e-01 -2.2305488586425781e-02
-2.1272296905517578e+00 7.9027652740478516e-02 -3.8254973292350769e-01
-1.6971549391746521e-01 4.4343277812004089e-01 7.9896658658981323e-02
1.8246569633483887e+00 -5.5143225193023682e-01 -5.9711582958698273e-02
-1.2221259623765945e-01 2.6572829112410545e-02 4.5717093348503113e-01
1.0464415550231934e+00 -1.2557020783424377e-01 -2.4053129553794861e-01
3.0518037080764771e-01 2.8214314579963684e-01 -2.7598246932029724e-01
1.6203867197036743e+00 5.5856001377105713e-01 -9.3743696808815002e-02
2.0394937992095947e+00 -3.9234730601310730e-01 -2.3856812715530396e-01
-1.0442432165145874e+00 -1.7212666571140289e-01 -1.9666163623332977e-01
-1.9445760250091553e+00 -4.5704823732376099e-01 -2.3941357433795929e-01
-1.4810816049575806e+00 -3.2503801584243774e-01 4.2669761180877686e-01
-5.3077489137649536e-01 -2.5431749224662781e-01 6.7512795329093933e-02
-1.2224968671798706e+00 2.3357911035418510e-02 -4.0767711400985718e-01
7.9437047243118286e-01 -1.1829136312007904e-01 1.2296126224100590e-02
2.2471117973327637e+00 -5.4972603917121887e-02 -1.9101728498935699e-01
-1.7301672697067261e+00 -3.8700401782989502e-01 4.1375619173049927e-01
1.0587685108184814e+00 -1.7185080796480179e-03 -2.8209286928176880e-01
7.8997498750686646e-01 6.3125215470790863e-02 -1.0498189926147461e-01
-1.5999859571456909e+00 2.0306020975112915e-01 -5.2850025892257690e-01
6.4820700883865356e-01 7.4607677757740021e-02 -1.5120325982570648e-01
1.7707941532135010e+00 -4.6628499031066895e-01 3.1703397631645203e-01
5.4112464189529419e-01 1.2163376808166504e-01 2.2706973552703857e-01
1.2230069637298584e+00 4.0317267179489136e-01 9.3034528195858002e-02
2.1973123550415039e+00 -2.8117582201957703e-01 9.1527268290519714e-02
2.2383241653442383e+00 -1.7436809837818146e-01 -1.3350972533226013e-01
2.0886015892028809e+00 -3.9791983366012573e-01 1.4309589564800262e-01
1.1722985506057739e+00 6.4706481993198395e-02 -3.7512204051017761e-01
-1.8051230907440186e+00 2.6233550906181335e-01 4.8594105243682861e-01
1.8187643289566040e+00 2.8197845816612244e-01 -4.7924000024795532e-01
1.2931479215621948e+00 -2.1073682606220245e-01 -4.1066643595695496e-01
2.1434032917022705e+00 2.1405376493930817e-01 -2.9958638548851013e-01
1.2714594602584839e+00 3.9224195480346680e-01 -2.1482533216476440e-01
2.2423925399780273e+00 1.9949035346508026e-01 -2.8946893289685249e-02
1.3897395133972168e+00 -2.7586834505200386e-02 -5.0933301448822021e-01
-1.4111974239349365e+00 -4.9390107393264771e-01 1.4282563328742981e-01
-2.0421519279479980e+00 -3.7599584460258484e-01 -2.6986584067344666e-01
-1.6930885314941406e+00 -1.8625572323799133e-01 5.3567028045654297e-01
2.1527194976806641e+00 -3.1823179125785828e-01 -1.6529482603073120e-01
2.0788300037384033e+00 -4.2272076010704041e-01 -9.8314836621284485e-02
-9.2700131237506866e-02 1.5460114181041718e-01 4.3956059217453003e-01
-2.0032212734222412e+00 -1.9337558746337891e-01 -4.4706365466117859e-01
1.1687554121017456e+00 2.1242135763168335e-01 3.0769854784011841e-01
2.0899598598480225e+00 -2.0199866965413094e-02 -4.2189651727676392e-01
2.0325834751129150e+00 3.0040973424911499e-01 -3.5514774918556213e-01
-1.8848456144332886e+00 -5.3344923257827759e-01 7.2538509964942932e-02
-1.6631547212600708e+00 -5.5075091123580933e-01 -1.4001744985580444e-01
1.4570989608764648e+00 -5.2602368593215942e-01 9.1687373816967010e-02
-1.5397349596023560e+00 -1.9870391488075256e-01 5.1393008232116699e-01
-2.0237693786621094e+00 4.6340075135231018e-01 8.6682744324207306e-02
5.6487733125686646e-01 -1.6649465262889862e-01 -1.5628141164779663e-01
-1.0426198244094849e+00 -2.5413337349891663e-01 6.0201004147529602e-02
-2.0968136787414551e+00 3.8374727964401245e-01 1.6227245330810547e-01
-2.2753188610076904e+00 -8.7851993739604950e-02 7.5835824012756348e-02
-2.0149405002593994e+00 4.3629196286201477e-01 -1.9617438316345215e-01
2.2783565521240234e-01 -4.2346510291099548e-01 -2.7704698964953423e-02
-1.9359119236469269e-02 -2.7529224753379822e-02 -4.5986512303352356e-01
1.7182281017303467e+00 1.8968048691749573e-01 5.3142100572586060e-01
-7.7697288990020752e-01 -1.1519785225391388e-01 -3.9641574025154114e-02
1.7100217342376709e+00 5.9157162904739380e-02 5.6349140405654907e-01
-1.3256628513336182e+00 1.2736390531063080e-01 -4.5715922117233276e-01
-5.1293212175369263e-01 -1.9373360276222229e-01 1.9746349751949310e-01
-1.4747073650360107e+00 -4.7549152374267578e-01 -2.4725818634033203e-01
6.5621012449264526e-01 -6.2317349016666412e-02 -1.5018522739410400e-01
-1.5026222467422485e+00 -4.0547952055931091e-01 -3.6724689602851868e-01
6.5643841028213501e-01 -1.2717632949352264e-01 1.1169961094856262e-01
1.7481911182403564e-01 1.6472627222537994e-01 -4.0246284008026123e-01
2.1586217880249023e+00 1.1853167414665222e-01 3.2781374454498291e-01
-1.5521187782287598e+00 4.9743220210075378e-01 -2.4672314524650574e-01
2.0880846977233887e+00 3.3538934588432312e-01 2.5316563248634338e-01
-2.6189962029457092e-01 -3.9051195979118347e-01 1.4504407346248627e-01
-1.6109601259231567e+00 -2.1791064739227295e-01 -5.2235394716262817e-01
-1.0977180004119873e+00 3.0968552827835083e-01 -2.0030234009027481e-02
1.0569170713424683e+00 -2.4732249975204468e-01 1.2945142388343811e-01
1.2384017705917358e+00 -4.2555698752403259e-01 5.9397704899311066e-04
1.3460465669631958e+00 -4.7352766990661621e-01 -1.2206055223941803e-01
-2.2144780158996582e+00 2.7071595191955566e-01 -4.9410916864871979e-02
2.1883137226104736e+00 3.0904543399810791e-01 4.1730888187885284e-03
1.8401061296463013e+00 3.9077791571617126e-01 3.8366580009460449e-01
1.5847165584564209e+00 1.0132849216461182e-02 5.6092298030853271e-01
1.6901649236679077e+00 -5.0755083560943604e-01 -2.6362648606300354e-01
1.9342880249023438e+00 -3.7664359807968140e-01 -3.5890007019042969e-01
3.6932992935180664e-01 -1.3983905315399170e-01 -3.2985705137252808e-01
-2.1074569225311279e+00 4.7219768166542053e-03 4.0631046891212463e-01
1.8221433162689209e+00 -4.5259863138198853e-01 -3.2439604401588440e-01
1.4517840147018433e+00 -5.2777338027954102e-01 -7.4549198150634766e-02
3.0923298001289368e-01 3.3989942073822021e-01 2.1080784499645233e-01
2.3996900767087936e-02 3.6076259613037109e-01 3.0001115798950195e-01
-8.6217594146728516e-01 7.8938625752925873e-02 -1.0752347856760025e-01
-2.0105150341987610e-01 1.7980387806892395e-01 -3.9394494891166687e-01
-1.2136075496673584e+00 1.6402731835842133e-01 -3.6880326271057129e-01
-1.8710199594497681e+00 4.0856453776359558e-01 3.5150793194770813e-01
-3.5161530971527100e-01 3.7952786684036255e-01 3.4527204930782318e-02
1.6452800035476685e+00 9.7454115748405457e-02 -5.6274807453155518e-01
1.9058698415756226e+00 -3.8799035549163818e-01 3.5916873812675476e-01
-1.8793953657150269e+00 2.1139484643936157e-01 -4.9696472287178040e-01
-3.2057237625122070e-01 3.7057164311408997e-01 1.4076557755470276e-01
-1.3570990562438965e+00 4.1894748806953430e-01 2.4818868935108185e-01
-1.4716963768005371e+00 -2.5598180294036865e-01 -4.7145330905914307e-01
-2.8972513973712921e-05 -3.1077173352241516e-01 -3.3612284064292908e-01
1.1891566962003708e-01 -4.4611388444900513e-01 8.3698533475399017e-02
-1.7213734388351440e+00 5.4065579175949097e-01 1.7143002152442932e-01
-1.9532011747360229e+00 -5.1217418909072876e-01 -1.2527508661150932e-02
1.1413528919219971e+00 -3.5075625777244568e-01 -3.7710510194301605e-02
-2.0880529880523682e+00 -4.2686522006988525e-01 1.4715814962983131e-02
-1.1340456008911133e+00 -2.9930028319358826e-01 -1.6308192908763885e-01
-2.1355972290039062e+00 3.8014885783195496e-01 5.2253250032663345e-03
-2.0322568416595459e+00 3.4401530027389526e-01 3.1305727362632751e-01
1.5662482976913452e+00 -5.6103503704071045e-01 -1.1837976053357124e-02
-1.9009870290756226e+00 5.1119673252105713e-01 -1.3854444026947021e-01
1.4163572788238525e+00 4.0100353956222534e-01 -3.2969349622726440e-01
-1.7113223075866699e+00 -1.1350883543491364e-01 -5.5848807096481323e-01
1.6139166355133057e+00 4.1877889633178711e-01 -3.8251131772994995e-01
-7.1741861104965210e-01 1.3563111424446106e-01 3.6404233425855637e-02
1.9854097366333008e+00 -4.5607537031173706e-01 1.8862707912921906e-01
-1.5898430347442627e+00 -3.4176319837570190e-01 -4.4788837432861328e-01
-1.5144888162612915e+00 2.5606013834476471e-02 5.4423326253890991e-01
1.1235369443893433e+00 3.3379894495010376e-01 4.7602035105228424e-02
-1.9997600317001343e+00 2.9955911636352539e-01 -3.8560232520103455e-01
-2.0126738548278809e+00 4.8596478998661041e-02 -4.7542482614517212e-01
-3.4160014986991882e-01 -2.4572084844112396e-01 -2.8522965312004089e-01
2.1211013793945312e+00 3.1230909749865532e-02 3.8574177026748657e-01
3.2276743650436401e-01 9.9272662773728371e-03 -3.8315495848655701e-01
-4.0940380096435547e-01 4.3719667941331863e-02 -3.3831024169921875e-01
1.9638974964618683e-01 2.3302530869841576e-02 -4.3003123998641968e-01
-5.5036246776580811e-02 -9.8141886293888092e-02 4.5612522959709167e-01
-2.7704933285713196e-01 4.5204550027847290e-02 -4.0346717834472656e-01
-1.6805884838104248e+00 4.6812894940376282e-01 -3.2267594337463379e-01
-4.3214741349220276e-01 -2.6163056492805481e-01 -1.9416438043117523e-01
2.1595284938812256e+00 -1.8509232997894287e-01 2.8958827257156372e-01
2.0570557117462158e+00 -2.4423712491989136e-01 3.7181428074836731e-01
-1.1045789718627930e+00 -9.4205506145954132e-02 -2.9927068948745728e-01
-1.2658089399337769e+00 -2.5639873743057251e-01 -3.5621833801269531e-01
2.0973420143127441e+00 -1.6396942734718323e-01 -3.8295114040374756e-01
1.2895631790161133e+00 2.0496238768100739e-01 -4.0934124588966370e-01
-1.8877868652343750e+00 8.3368472754955292e-02 -5.3141272068023682e-01
7.9494118690490723e-03 -4.1495659947395325e-01 2.1089376509189606e-01
-2.2421865463256836e+00 -2.1449092030525208e-01 4.5287270098924637e-02
1.6043223142623901e+00 -3.5394307971000671e-01 -4.4500184059143066e-01
3.9826631546020508e-01 3.4577938914299011e-01 6.4983054995536804e-02
1.3488537073135376e+00 -1.0380035638809204e-01 4.7667497396469116e-01
-1.8124252557754517e+00 4.8817959427833557e-01 2.5826686620712280e-01
1.9548001289367676e+00 2.2301748394966125e-01 -4.5898282527923584e-01
2.2612848281860352e+00 -1.5436321496963501e-01 7.3748808354139328e-03
5.4188233613967896e-01 -1.8928091228008270e-01 1.6641777753829956e-01
-2.0851503312587738e-01 4.3694290518760681e-01 -2.9240798205137253e-02
-4.1149052977561951e-01 6.7524366080760956e-02 3.4240430593490601e-01
1.4017871618270874e+00 3.5039746761322021e-01 3.7384527921676636e-01
4.4783878326416016e-01 2.7903902530670166e-01 1.6305764019489288e-01
1.2842371463775635e+00 3.7745016813278198e-01 2.5098112225532532e-01
-1.0359458923339844e+00 7.9579867422580719e-02 2.3747295141220093e-01
1.1738740205764771e+00 3.1411156058311462e-01 2.1098703145980835e-01
1.9642217159271240e+00 4.4299533963203430e-01 2.3661126196384430e-01
1.2951947748661041e-01 -3.4043204784393311e-01 -2.9247522354125977e-01
2.4954397976398468e-01 -3.5906040668487549e-01 -2.0844691991806030e-01
-1.3272776603698730e+00 -4.7523403167724609e-01 9.1537795960903168e-03
1.6491800546646118e+00 -5.0400429964065552e-01 2.5777369737625122e-01
1.5177031755447388e+00 3.5021722316741943e-01 -4.2633953690528870e-01
6.1823222786188126e-02 -4.5783564448356628e-01 -3.6511555314064026e-02
-1.8614341318607330e-01 -4.2566001415252686e-01 -9.9333830177783966e-02
3.3910673856735229e-01 -3.6072191596031189e-01 -1.0951372981071472e-01
1.0411330461502075e+00 -1.5363928675651550e-01 2.1641087532043457e-01
-2.9011315107345581e-01 -4.0323737263679504e-01 -2.0795776508748531e-03
1.4783340692520142e+00 2.7050232887268066e-01 4.6555668115615845e-01
1.0495903491973877e+00 -2.6915019750595093e-01 -2.7702704071998596e-02
1.3154602050781250e+00 4.7056216001510620e-01 -4.1405986994504929e-02
-6.2648743391036987e-01 -8.7967038154602051e-02 -1.6705390810966492e-01
2.2330305576324463e+00 7.0580974221229553e-02 2.1685780584812164e-01
-2.1661365032196045e+00 -2.5498422980308533e-01 -2.3591500520706177e-01
-4.6571320295333862e-01 1.5945331752300262e-01 -2.6459199190139771e-01
2.1507463455200195e+00 3.3813288807868958e-01 1.1557801812887192e-01
5.2504545450210571e-01 2.2836862504482269e-01 -1.2297819554805756e-01
-7.1903234720230103e-01 -6.5628318116068840e-03 -1.3874517381191254e-01
-2.1299033164978027e+00 -2.3607715964317322e-01 3.0028215050697327e-01
-1.3096944093704224e+00 4.4168746471405029e-01 1.3661774992942810e-01
-9.8687142133712769e-01 1.5916071832180023e-01 1.4281815290451050e-01
1.8500413894653320e+00 3.8318865001201630e-02 5.4203253984451294e-01
-1.2603027820587158e+00 1.0684934258460999e-01 4.1816920042037964e-01
-2.1362962722778320e+00 2.7633255720138550e-01 2.5836381316184998e-01
-1.8349163532257080e+00 -4.4673228263854980e-01 3.2255688309669495e-01
1.1558295488357544e+00 -2.4765878915786743e-01 2.6762419939041138e-01
1.2498649358749390e+00 -4.0305477380752563e-01 1.5333496034145355e-01
-1.3508280515670776e+00 -4.3230113387107849e-01 2.2458299994468689e-01
1.3596097230911255e+00 -4.5379236340522766e-01 1.9913473725318909e-01
2.2327849268913269e-01 -1.1768268048763275e-01 4.1306662559509277e-01
-2.2628424167633057e+00 1.4061886072158813e-01 -8.8703200221061707e-02
1.5835636854171753e+00 -4.6261584758758545e-01 -3.2514941692352295e-01
6.2095236778259277e-01 -1.9385674968361855e-02 1.9512727856636047e-01
1.4791427850723267e+00 -3.9075464010238647e-01 -3.7718594074249268e-01
5.4331168532371521e-02 -1.9941723346710205e-01 -4.0962213277816772e-01
1.9858677387237549e+00 3.4565415978431702e-01 3.4903025627136230e-01
1.0669269561767578e+00 2.4763913452625275e-01 1.5162245929241180e-01
-6.4505773782730103e-01 6.4958013594150543e-02 1.6373486816883087e-01
-1.5737235546112061e+00 5.4896152019500732e-01 9.8661392927169800e-02
1.4065908193588257e+00 4.4084334373474121e-01 2.6396432518959045e-01
1.7287133932113647e+00 5.2902007102966309e-01 2.0235648751258850e-01
-2.1973413228988647e-01 -8.0382481217384338e-02 4.2817649245262146e-01
-2.2628967761993408e+00 5.5723387748003006e-02 1.5100641548633575e-01
-6.0168725252151489e-01 -7.6492272317409515e-02 1.9430495798587799e-01
1.7673809528350830e+00 -1.3073366880416870e-01 -5.5197077989578247e-01
-1.0347435474395752e+00 -1.8165959417819977e-01 1.7721213400363922e-01
-1.8257311582565308e+00 -2.3494718596339226e-02 -5.5493611097335815e-01
-1.1389690637588501e+00 -2.4832107126712799e-01 2.3841655254364014e-01
1.9346122741699219e+00 5.1404559612274170e-01 -6.0459975153207779e-02
-1.5397883653640747e+00 2.9872265458106995e-01 -4.6524131298065186e-01
2.5611540675163269e-01 4.0680444240570068e-01 1.0876400023698807e-01
2.0085713863372803e+00 -1.2099554389715195e-01 4.6199539303779602e-01
1.4938739538192749e+00 -3.3055585622787476e-01 4.3220397830009460e-01
1.1223515123128891e-01 4.2440915107727051e-01 1.7531105875968933e-01
-2.0946102142333984e+00 -6.2848992645740509e-02 -4.1656363010406494e-01
-3.2643380761146545e-01 -3.5949885845184326e-01 -1.3986478745937347e-01
1.7731098830699921e-01 3.8513684272766113e-01 -2.1549116075038910e-01
-1.6103490591049194e+00 3.2697153091430664e-01 4.5640528202056885e-01
1.8318979740142822e+00 -3.2993665337562561e-01 -4.4642364978790283e-01
1.9767500162124634e+00 4.1839277744293213e-01 -2.6880219578742981e-01
-2.2129907608032227e+00 1.7534828186035156e-01 2.1240524947643280e-01
-2.2749111652374268e+00 -9.7931548953056335e-02 -7.3768325150012970e-02
-2.2364790439605713e+00 -7.3398150503635406e-02 2.1247754991054535e-01
-1.4206504821777344e+00 3.2536560297012329e-01 -4.0388178825378418e-01
-1.1006311178207397e+00 2.6487591862678528e-01 -1.6271634399890900e-01
-9.9884277582168579e-01 1.9477352499961853e-01 -1.1077771335840225e-01
1.7881484329700470e-01 -4.0256366133689880e-01 1.8320091068744659e-01
-2.9631156474351883e-02 -3.3445909619331360e-01 3.2450398802757263e-01
-1.9370527267456055e+00 -4.7475954890251160e-01 2.0261278748512268e-01
-2.0220968723297119e+00 7.9626806080341339e-02 4.6496608853340149e-01
1.7174947261810303e+00 -5.6861889362335205e-01 2.3296369239687920e-02
1.8046023845672607e+00 -5.2707803249359131e-01 -1.8866150081157684e-01
1.3286589384078979e+00 4.6134656667709351e-01 1.2368617951869965e-01
8.4426134824752808e-01 1.2829902768135071e-01 -1.3305442407727242e-03
1.2185364216566086e-01 4.5490723848342896e-01 4.3088551610708237e-02
-1.4466470479965210e+00 -9.9647104740142822e-02 5.1500201225280762e-01
5.2925378084182739e-01 1.3283836841583252e-01 -2.2245472669601440e-01
-2.6189345121383667e-01 6.6512115299701691e-02 4.1857704520225525e-01
-1.3475692272186279e+00 -1.2592793442308903e-02 4.8231837153434753e-01
4.7080785036087036e-01 5.4959643632173538e-02 3.0312016606330872e-01
5.3746152669191360e-02 2.5575304031372070e-01 -3.8045996427536011e-01
-1.8728505074977875e-01 -9.4694532454013824e-02 -4.2370682954788208e-01
-1.8851726055145264e+00 -5.1925063133239746e-01 -1.3710366189479828e-01
1.1558012962341309e+00 -3.0763483047485352e-01 -1.9265280663967133e-01
1.9780558347702026e+00 -2.5762596726417542e-01 -4.2877814173698425e-01
1.0901953279972076e-01 -7.1937993168830872e-02 -4.4440111517906189e-01
2.1119513511657715e+00 -9.0205192565917969e-02 3.8811340928077698e-01
-1.5558409690856934e-01 -4.4368407130241394e-01 5.4709810763597488e-02
-1.1424024105072021e+00 -3.2844704389572144e-01 1.1748677492141724e-01
-3.9703887701034546e-01 -3.3986723423004150e-01 8.0124393105506897e-02
-1.6617016792297363e+00 -4.4367358088493347e-01 -3.5751590132713318e-01
2.2291378974914551e+00 -1.7514233291149139e-01 1.6094599664211273e-01
6.6207325458526611e-01 -1.5825770795345306e-01 -3.6503266543149948e-02
9.3080258369445801e-01 -1.4687716960906982e-01 9.2665106058120728e-02
-1.4411782026290894e+00 4.9867716431617737e-01 -1.6394558548927307e-01
6.8043386936187744e-01 7.7727556228637695e-02 1.4037883281707764e-01
-1.3223941326141357e+00 -3.1655827164649963e-01 3.4986072778701782e-01
1.2513996362686157e+00 -3.1096062064170837e-01 -3.0401030182838440e-01
-1.4365583658218384e+00 -4.0706917643547058e-01 3.2547429203987122e-01
-1.7705788612365723e+00 5.5732399225234985e-01 -8.3452194929122925e-02
-1.2521148920059204e+00 -3.6094769835472107e-01 -2.3378194868564606e-01
-1.2241874933242798e+00 -2.1806780993938446e-01 3.4384882450103760e-01
-1.6923491954803467e+00 -4.8293820023536682e-01 3.0009838938713074e-01
2.1588556766510010e+00 6.4819239079952240e-02 -3.4062507748603821e-01
1.5840402841567993e+00 -4.3398621678352356e-01 3.5654854774475098e-01
4.3638005852699280e-01 6.5606008283793926e-03 -3.1903535127639771e-01
1.8023928403854370e+00 -3.5160520672798157e-01 4.3239402770996094e-01
1.5979368686676025e+00 -2.7912122011184692e-01 4.8682633042335510e-01
-1.7389304637908936e+00 -5.6147241592407227e-01 6.6535517573356628e-02
-2.1773355007171631e+00 -3.2673886418342590e-01 -2.6662511751055717e-02
1.6849235296249390e+00 3.8741457462310791e-01 4.1188067197799683e-01
1.1748337745666504e+00 1.9449393451213837e-01 -3.2646790146827698e-01
1.5582660436630249e+00 5.5680245161056519e-01 1.8183285370469093e-02
2.2052577137947083e-01 1.4644618332386017e-01 4.0920376777648926e-01
4.1801413893699646e-01 3.3098360896110535e-01 -6.4212463796138763e-02
3.0627103522419930e-02 3.6568406969308853e-02 4.6698012948036194e-01
1.6211684942245483e+00 -1.9406917691230774e-01 -5.3646993637084961e-01
-1.2972365617752075e+00 -1.4342616498470306e-01 4.3374982476234436e-01
5.1812869310379028e-01 -7.9993538558483124e-02 2.5675427913665771e-01
1.8810993432998657e+00 1.2880064547061920e-01 -5.2437913417816162e-01
1.6440722942352295e+00 2.8351435065269470e-01 -4.9687856435775757e-01
-2.1302466392517090e+00 1.5287674963474274e-01 3.5223197937011719e-01
-2.1646752357482910e+00 -3.2535484433174133e-01 1.2078408151865005e-01
2.2666122913360596e+00 9.1236814856529236e-02 -1.0134539008140564e-01
2.1414899826049805e+00 3.5064306855201721e-01 -1.0548141598701477e-01
-6.3727039098739624e-01 -1.5951888263225555e-01 9.1017194092273712e-02
-1.6190038919448853e+00 -3.0873173475265503e-01 4.7207581996917725e-01
-1.5330365896224976e+00 -4.9025928974151611e-01 2.5542032718658447e-01
1.9971052408218384e+00 5.4686818271875381e-02 -4.8577886819839478e-01
-1.1918026208877563e+00 3.7093406915664673e-01 9.6300765872001648e-02
1.4626561403274536e+00 5.1053065061569214e-01 1.5298052132129669e-01
-1.3041028976440430e+00 3.1142190098762512e-01 3.3359578251838684e-01
-1.8846807479858398e+00 -3.4752324223518372e-01 4.0957605838775635e-01
-1.2145479917526245e+00 3.3020463585853577e-01 2.2965168952941895e-01
1.2426735162734985e+00 -3.2427445054054260e-01 2.8041207790374756e-01
1.4570851325988770e+00 -2.8464021161198616e-02 5.3090083599090576e-01
-4.0014478564262390e-01 2.8021413087844849e-01 2.1329964697360992e-01
-9.2010462284088135e-01 -1.6311097145080566e-01 5.1405373960733414e-04
-2.9426044225692749e-01 -3.0966889858245850e-01 2.6151949167251587e-01
-2.2548778057098389e+00 1.7687964439392090e-01 6.1931885778903961e-02
-4.3114319443702698e-01 -3.2521203160285950e-01 -4.9853041768074036e-02
4.7458060085773468e-02 3.6638808250427246e-01 -2.8020924329757690e-01
-4.6805116534233093e-01 3.0826699733734131e-01 -2.7543200179934502e-02
1.4526687860488892e+00 1.1648298054933548e-01 5.1741856336593628e-01
-2.3666346073150635e-01 -2.1931445598602295e-01 -3.5696125030517578e-01
2.9574880003929138e-01 -3.9486128091812134e-01 7.7828116714954376e-02
2.2732515335083008e+00 7.8252509236335754e-02 6.4764335751533508e-02
1.8832885026931763e+00 -8.5496798157691956e-02 5.2638667821884155e-01
-1.5602458715438843e+00 4.1354802250862122e-01 3.6939918994903564e-01
-1.7924160957336426e+00 1.2351119518280029e-01 5.4334205389022827e-01
1.3930140435695648e-01 4.4430217146873474e-01 -8.4991961717605591e-02
5.4623174667358398e-01 -1.1255025863647461e-02 -2.4074283242225647e-01
-4.8821377754211426e-01 2.8065228462219238e-01 1.0062869638204575e-01
-2.7913114428520203e-01 2.9588887095451355e-01 2.9024079442024231e-01
-1.3987395167350769e-01 3.9341900497674942e-02 -4.4207748770713806e-01
-1.2033615112304688e+00 2.0192520320415497e-01 3.3656629920005798e-01
-9.3982100486755371e-01 -1.3323275372385979e-02 1.7607012391090393e-01
1.2284954786300659e+00 -3.9973076432943344e-02 4.1557192802429199e-01
-1.9974592328071594e-01 3.8564789295196533e-01 2.1165232360363007e-01
-1.3386206626892090e+00 4.7843033075332642e-01 2.6858951896429062e-03
-9.2019200325012207e-01 -1.1828719824552536e-01 1.1086088418960571e-01
1.1918666362762451e+00 2.9327693581581116e-01 -2.5726410746574402e-01
-3.6276984214782715e-01 1.8052513897418976e-01 3.2943642139434814e-01
1.3370116949081421e+00 -3.4509667754173279e-01 3.3795958757400513e-01
1.0639499425888062e+00 2.2377116978168488e-01 -1.7993223667144775e-01
1.3806730508804321e+00 -2.5078839063644409e-01 4.3388280272483826e-01
1.1366852521896362e+00 4.2230539023876190e-02 3.4510153532028198e-01
-1.4788054227828979e+00 4.7372165322303772e-01 2.4736152589321136e-01
-2.2202460765838623e+00 1.1455000936985016e-01 -2.4073322117328644e-01
1.7209414243698120e+00 -2.3857115209102631e-01 5.1420152187347412e-01
-3.3159101009368896e-01 3.7497666478157043e-01 -1.0158988833427429e-01
-1.3703081607818604e+00 -4.7672551870346069e-01 -1.4472742378711700e-01
-1.3572100400924683e+00 -3.9948809146881104e-01 -2.8468134999275208e-01
1.8478301763534546e+00 5.2937221527099609e-01 1.3793314993381500e-01
-1.0502166748046875e+00 -7.1926951408386230e-02 2.5612011551856995e-01
-8.6439514160156250e-01 1.3510648906230927e-01 -8.9061623439192772e-03
1.3423854112625122e+00 -4.0090596675872803e-01 -2.7777922153472900e-01
-1.2109901905059814e+00 -1.1525856703519821e-01 -3.8676056265830994e-01
-1.1123456954956055e+00 4.2067751288414001e-02 -3.2191821932792664e-01
1.3487217947840691e-02 -2.3587089776992798e-01 4.0339088439941406e-01
-4.0868824720382690e-01 -2.8703013062477112e-01 1.9410602748394012e-01
-1.5747045278549194e+00 -6.6660255193710327e-02 -5.5695062875747681e-01
-2.0583109855651855e+00 -2.8248646855354309e-01 -3.5193240642547607e-01
-1.7408032417297363e+00 -2.6269271969795227e-01 -5.0432860851287842e-01
1.2163411378860474e+00 4.0124270319938660e-01 -6.8939715623855591e-02
-2.1990985870361328e+00 4.7773621976375580e-02 2.9274359345436096e-01
1.5118650197982788e+00 4.7325760126113892e-01 -2.7888059616088867e-01
-2.0385870933532715e+00 2.2652898728847504e-01 4.0140435099601746e-01
-1.1385174989700317e+00 -1.0382831841707230e-01 3.2624578475952148e-01
-1.6052591800689697e+00 5.0644361972808838e-01 2.3878403007984161e-01
1.8483664989471436e+00 4.6639674901962280e-01 2.8487777709960938e-01
-8.1481628119945526e-02 2.8547027707099915e-01 -3.5754540562629700e-01
1.5746949911117554e+00 1.5951754152774811e-01 5.3568851947784424e-01
1.0467325448989868e+00 -2.4216484278440475e-02 2.6879292726516724e-01
8.3866554498672485e-01 6.9075621664524078e-02 1.1113461107015610e-01
-2.1821618080139160e-02 4.6781975030899048e-01 -1.4013269916176796e-02
-9.8868691921234131e-01 2.1189166605472565e-01 1.9863571971654892e-02
-7.0513114333152771e-02 4.0226286649703979e-01 2.3627613484859467e-01
-5.9237772226333618e-01 1.8473429977893829e-01 1.1546550691127777e-01
-2.0152394771575928e+00 1.8325930833816528e-01 -4.4192564487457275e-01
1.1721555888652802e-01 -3.4972581267356873e-01 2.9328086972236633e-01
-1.8169561624526978e+00 -4.4710677862167358e-01 -3.2907116413116455e-01
1.1435070037841797e+00 -3.3520573377609253e-01 1.2081227451562881e-01
-1.7455322742462158e+00 3.7006646394729614e-01 4.2393943667411804e-01
-1.2518993616104126e+00 -4.1997846961021423e-01 9.3699038028717041e-02
9.3558156490325928e-01 -1.3604512810707092e-01 -1.1115241050720215e-01
-1.5878980159759521e+00 -4.1968035697937012e-01 3.7231919169425964e-01
1.7181370258331299e+00 -2.7578127384185791e-01 -5.0086319446563721e-01
-1.7788057327270508e+00 -2.7704212069511414e-01 4.8810607194900513e-01
4.7443610429763794e-01 -1.4515425264835358e-01 -2.5150018930435181e-01
-2.4248875677585602e-01 3.7595424056053162e-01 -1.9532510638237000e-01
-1.1613181829452515e+00 -2.3202693462371826e-01 -2.7964368462562561e-01
1.7163853645324707e+00 -4.1167539358139038e-01 -3.9665058255195618e-01
-1.2012459039688110e+00 2.7780279517173767e-01 -2.7960222959518433e-01
-5.6858379393815994e-02 -4.5207285881042480e-01 -8.0166637897491455e-02
-1.4241518974304199e+00 4.2259311676025391e-01 -3.0094304680824280e-01
-2.1953666210174561e+00 2.3920467495918274e-01 -1.9233888387680054e-01
-1.2762711942195892e-01 -2.8258115053176880e-01 -3.4282189607620239e-01
-2.0340955257415771e+00 4.6168959140777588e-01 -5.7579189538955688e-02
5.6874509900808334e-02 9.9996387958526611e-02 -4.4548088312149048e-01
5.6065988540649414e-01 -2.3281022906303406e-01 2.7854746207594872e-02
1.0630549192428589e+00 1.2122124433517456e-01 -2.5675225257873535e-01
1.5241076946258545e+00 -8.6289331316947937e-02 -5.4816085100173950e-01
1.6677131652832031e+00 -5.5846244096755981e-01 -1.1758948117494583e-01
-1.1000462770462036e+00 1.6384670138359070e-01 -2.6663661003112793e-01
2.1852316856384277e+00 -7.9072728753089905e-02 -3.0523797869682312e-01
2.2038624286651611e+00 2.2763907909393311e-01 -1.7644201219081879e-01
-1.7765107154846191e+00 -5.6111526489257812e-01 -6.5206386148929596e-02
-1.7117362022399902e+00 5.2794903516769409e-01 -2.0387056469917297e-01
2.1297965049743652e+00 -3.0496039986610413e-01 2.2866307199001312e-01
-1.6120404005050659e+00 -5.0171411037445068e-01 -2.6223236322402954e-01
1.7798329591751099e+00 2.9549664258956909e-01 4.7510853409767151e-01
3.1061002612113953e-01 -1.9700469076633453e-01 3.4541779756546021e-01
-2.0579416751861572e+00 -1.4383575320243835e-01 4.2387714982032776e-01
1.7306212186813354e+00 -8.6437918245792389e-02 5.6059134006500244e-01
1.6800354719161987e+00 -3.8492548465728760e-01 4.1848891973495483e-01
2.2006707191467285e+00 -2.8850218653678894e-01 -4.2234838008880615e-02
1.9825533628463745e+00 -4.9625939130783081e-01 3.7565782666206360e-02
2.2300789356231689e+00 1.9468547403812408e-01 1.2876962125301361e-01
-1.7432212829589844e+00 1.4558163285255432e-01 -5.4814064502716064e-01
2.0719759464263916e+00 2.2670523822307587e-01 3.6953413486480713e-01
9.6510136127471924e-01 1.7897026240825653e-01 8.6050815880298615e-02
1.6010152101516724e+00 5.3905397653579712e-01 1.5527650713920593e-01
5.3241729736328125e-01 2.5627630949020386e-01 1.6968727111816406e-02
2.9319396615028381e-01 3.7430682778358459e-01 -1.4867086708545685e-01
1.7093914747238159e+00 4.8822298645973206e-01 -2.9134535789489746e-01
1.2830874919891357e+00 2.7810928225517273e-01 3.5731226205825806e-01
-1.6109032630920410e+00 -7.2619542479515076e-02 5.5782532691955566e-01
-1.6728549003601074e+00 2.2466810047626495e-01 5.1856017112731934e-01
3.5447141528129578e-01 1.1769415438175201e-01 3.5728979110717773e-01
1.3214952945709229e+00 3.2370102405548096e-01 -3.4777563810348511e-01
1.7438319921493530e+00 1.8316182494163513e-01 -5.3596669435501099e-01
-8.6763840913772583e-01 8.1814326345920563e-02 1.0661702603101730e-01
1.7899456024169922e+00 5.5848819017410278e-01 -3.5258866846561432e-02
-1.2245026826858521e+00 4.0876373648643494e-01 -2.8060769662261009e-02
2.0257525444030762e+00 4.4769001007080078e-01 -1.3819845020771027e-01
1.3292665481567383e+00 4.7077998518943787e-02 4.7554063796997070e-01
-5.2482116222381592e-01 -1.5617553889751434e-01 -2.0661728084087372e-01
-4.9405324459075928e-01 1.7755036056041718e-01 2.3014780879020691e-01
-1.7799013853073120e+00 5.5562734603881836e-01 5.8173954486846924e-02
-3.5385507345199585e-01 -4.9184147268533707e-02 3.7765678763389587e-01
3.3345144987106323e-01 -3.3161199092864990e-01 1.9215130805969238e-01
-2.1910936832427979e+00 2.9167088866233826e-01 1.0819308459758759e-01
-1.4212445914745331e-01 -3.9828300476074219e-01 2.1686652302742004e-01
4.0568807721138000e-01 -8.4945835173130035e-02 3.3512717485427856e-01
-2.2309904098510742e+00 -2.1900473535060883e-01 -1.0871492326259613e-01
-2.2110147476196289e+00 -2.0860984921455383e-01 1.9082304835319519e-01
-1.2414337396621704e+00 -3.5258641839027405e-01 2.3304279148578644e-01
1.2584911584854126e+00 -1.8974857032299042e-01 3.9592662453651428e-01
-1.6544128656387329e+00 -5.3951108455657959e-01 1.7787232995033264e-01
1.4457266330718994e+00 -4.7196450829505920e-01 -2.4468281865119934e-01
-2.0434207916259766e+00 -4.4480448961257935e-01 1.2865082919597626e-01
-3.2341730594635010e-01 -8.9365832507610321e-02 -3.7496393918991089e-01
1.1691802740097046e+00 -1.9606932997703552e-01 -3.2070264220237732e-01
-1.3308107852935791e+00 -3.4268118441104889e-02 -4.7623685002326965e-01
9.5566380023956299e-01 -1.8978367745876312e-01 -1.6737636178731918e-02
-1.0521560907363892e+00 -2.6150768995285034e-01 -6.2848091125488281e-02
-9.5000946521759033e-01 -1.4051839709281921e-01 -1.1460621654987335e-01
2.4751986563205719e-01 -1.2688520550727844e-01 -3.9300927519798279e-01
1.2851725816726685e+00 6.7343734204769135e-02 -4.4921305775642395e-01
-1.6731042861938477e+00 3.6466479301452637e-01 -4.3923744559288025e-01
-1.1128259897232056e+00 2.1545955538749695e-01 2.3758316040039062e-01
4.2122167348861694e-01 1.5562435984611511e-01 -2.9289141297340393e-01
-1.4003002643585205e+00 1.0844204574823380e-01 4.9451121687889099e-01
-3.5462617874145508e-01 2.7827295660972595e-01 -2.5078564882278442e-01
2.0681631565093994e+00 1.5709786117076874e-01 -4.1053742170333862e-01
1.7996978759765625e-01 2.3300347849726677e-02 4.4484770298004150e-01
3.0467680096626282e-01 1.5498816967010498e-01 -3.6016321182250977e-01
-5.1857686042785645e-01 -4.8847179859876633e-03 -2.6696696877479553e-01
-2.2240795195102692e-01 1.9161252677440643e-01 3.8952288031578064e-01
1.7859786748886108e+00 2.8436144813895226e-02 -5.6290584802627563e-01
1.4449226856231689e+00 -4.1757148504257202e-01 3.2115715742111206e-01
2.2142155170440674e+00 -5.5856294929981232e-02 2.6285013556480408e-01
-5.3831481933593750e-01 -2.4125610291957855e-01 -7.8979335725307465e-02
1.9400500059127808e+00 -2.5963792204856873e-01 4.4369891285896301e-01
1.6073634624481201e+00 -5.5172419548034668e-01 1.2366843968629837e-01
2.0701267719268799e+00 -2.9721033573150635e-01 -3.2338249683380127e-01
-1.2177808284759521e+00 -2.5090627372264862e-02 4.0083616971969604e-01
-2.1986823081970215e+00 -1.2046152725815773e-02 -3.0248844623565674e-01
5.7100665569305420e-01 1.9744470715522766e-01 1.2611550092697144e-01
1.4258532524108887e+00 5.1939421892166138e-01 1.2848099693655968e-02
2.2810776233673096e+00 -2.9027575626969337e-02 -4.5364536345005035e-02
1.3850766420364380e+00 -3.0956557393074036e-01 -4.0343001484870911e-01
-1.4687328338623047e+00 5.3083652257919312e-01 -3.7788420915603638e-02
8.4704883396625519e-02 -1.0265113413333893e-01 4.5103523135185242e-01
-7.5911426544189453e-01 8.4957797080278397e-03 1.2235030531883240e-01
-1.9536827802658081e+00 4.0827614068984985e-01 -3.0767443776130676e-01
9.7069585323333740e-01 8.5073687136173248e-02 1.8546047806739807e-01
-1.9607257843017578e+00 -7.9257927834987640e-02 -5.0255894660949707e-01
-6.0944363474845886e-02 1.5735974907875061e-01 -4.2989075183868408e-01
-1.4371621608734131e+00 3.6609432101249695e-01 3.6909610033035278e-01
-1.8900470733642578e+00 2.5276252999901772e-02 5.3347671031951904e-01
-1.0827150195837021e-01 -3.8846880197525024e-01 -2.2890995442867279e-01
-1.9827576875686646e+00 -3.9084675908088684e-01 3.0532780289649963e-01
-2.6803154498338699e-02 4.5011001825332642e-01 1.2114288657903671e-01
1.5337849855422974e+00 3.9899829030036926e-01 3.8461482524871826e-01
1.9934648275375366e+00 -1.1995335668325424e-01 -4.7705915570259094e-01
-7.6747357845306396e-01 -8.7785951793193817e-02 8.5238486528396606e-02
1.9071450233459473e+00 3.5586097836494446e-01 -3.9178311824798584e-01
1.8750077486038208e+00 -4.8301935195922852e-01 2.3604407906532288e-01
7.8236818313598633e-01 -4.6586342155933380e-02 1.1489138007164001e-01
9.5173579454421997e-01 1.7232249677181244e-01 -7.5638599693775177e-02
1.9956061840057373e+00 2.5254081934690475e-02 4.8675468564033508e-01
1.3448064327239990e+00 -4.8628753423690796e-01 4.0745597332715988e-02
-6.9852554798126221e-01 1.1480052024126053e-01 -9.3081533908843994e-02
-2.2868452072143555e+00 3.7550233304500580e-02 7.4830912053585052e-03
-1.4477359056472778e+00 -5.2833783626556396e-01 -1.4270232990384102e-02
7.9511559009552002e-01 -6.0660734772682190e-02 -9.9090978503227234e-02
-9.9857056140899658e-01 -2.1236740052700043e-02 -2.2020554542541504e-01
-1.3871263265609741e+00 -3.1468239426612854e-01 -3.9186501502990723e-01
2.5006050243973732e-02 4.3735074996948242e-01 -1.5704138576984406e-01
7.1244359016418457e-02 1.5713667869567871e-01 4.3873468041419983e-01
-3.7820640951395035e-02 -4.5413610339164734e-01 9.2139184474945068e-02
-7.3309957981109619e-02 -1.6214513778686523e-01 -4.2420160770416260e-01
1.5458289384841919e+00 2.0533792674541473e-01 -5.1935982704162598e-01
-1.4343913793563843e+00 1.8680672347545624e-01 -4.9088209867477417e-01
-1.3946117162704468e+00 -2.2843424975872040e-01 4.4813656806945801e-01
1.4798845052719116e+00 -1.7542666196823120e-01 5.0880259275436401e-01
1.9333052635192871e+00 -4.6889746189117432e-01 -2.2487163543701172e-01
2.0437254905700684e+00 4.3261823058128357e-01 1.3472504913806915e-01
-1.9721485376358032e+00 4.3664073944091797e-01 2.4241738021373749e-01
-2.0363855361938477e+00 -4.5086809992790222e-01 -1.1559476703405380e-01
